ply
format ascii 1.0
comment Created by Open3D
element vertex 1794
property double x
property double y
property double z
end_header
0.624118 0.52133 0.660731
0.474542 0.59722 0.532015
0.855428 0.135713 0.600427
0.405121 0.555968 0.330321
0.134435 0.816907 0.34061
0.616958 0.614632 0.573654
0.367377 0.149412 0.651428
0.431463 0.147952 0.635087
0.733615 0.605672 0.49653
0.560009 0.158356 0.74665
0.624235 0.158138 0.744352
0.489419 0.573033 0.596035
0.387674 0.915251 0.376812
0.495807 0.564741 0.610795
0.88106 0.14514 0.603677
0.361587 0.610123 0.415409
0.130386 0.349616 0.653752
0.090657 0.781101 0.550583
0.386697 0.157883 0.645766
0.409887 0.934673 0.313893
0.514976 0.165711 0.730633
0.579277 0.16709 0.746293
0.643388 0.16762 0.747808
0.502183 0.565043 0.613432
0.823856 0.526166 0.548617
0.674691 0.626854 0.52066
0.900438 0.154181 0.603693
0.141874 0.72428 0.289146
0.257601 0.767375 0.562665
0.341575 0.167893 0.656361
0.405591 0.166465 0.639966
0.645223 0.633585 0.464091
0.534347 0.176275 0.747423
0.598636 0.177393 0.756147
0.508597 0.556404 0.627176
0.360954 0.519628 0.618522
0.083503 0.78288 0.510331
0.855505 0.162759 0.59921
0.919553 0.162027 0.597554
0.135881 0.849001 0.283532
0.260413 0.760118 0.563891
0.341574 0.177153 0.658791
0.405862 0.175666 0.641454
0.717205 0.613694 0.49051
0.534407 0.185537 0.750391
0.598562 0.186377 0.759707
0.824913 0.44386 0.62177
0.184777 0.574157 0.339785
0.206223 0.755686 0.335885
0.871213 0.412233 0.571884
0.919759 0.171649 0.596776
0.682092 0.520804 0.644418
0.71409 0.511356 0.643048
0.612448 0.420796 0.727023
0.373823 0.186309 0.660447
0.437529 0.184954 0.646037
0.502481 0.193285 0.736266
0.566391 0.195089 0.758703
0.630737 0.195334 0.761098
0.54077 0.556674 0.635942
0.884207 0.376515 0.372948
0.379692 0.605326 0.421996
0.887513 0.180346 0.591268
0.726972 0.511195 0.638383
0.371794 0.608986 0.428603
0.251695 0.188749 0.586078
0.781994 0.572146 0.523705
0.380173 0.195384 0.66019
0.670962 0.630483 0.47348
0.508735 0.20258 0.741106
0.572814 0.204037 0.758627
0.637142 0.204141 0.759395
0.123284 0.705519 0.69342
0.65631 0.556552 0.634208
0.521537 0.582545 0.602518
0.893873 0.189138 0.586557
0.335204 0.859046 0.421904
0.481058 0.608479 0.468578
0.223554 0.456339 0.279066
0.46945 0.585897 0.549197
0.367279 0.204856 0.664762
0.431627 0.203055 0.644597
0.911326 0.225782 0.562424
0.559957 0.212764 0.756228
0.624289 0.213044 0.758927
0.71415 0.54713 0.625495
0.46334 0.555801 0.603969
0.142296 0.687401 0.702863
0.881445 0.197396 0.577825
0.166666 0.792308 0.511203
0.655429 0.627689 0.531992
0.181888 0.802906 0.339153
0.339652 0.356195 0.255949
0.341673 0.213716 0.663339
0.4059 0.212402 0.648875
0.851099 0.486314 0.540284
0.534184 0.22094 0.747883
0.598554 0.222045 0.761272
0.662802 0.221219 0.750699
0.662743 0.547637 0.637551
0.694909 0.556282 0.624745
0.043216 0.45388 0.464108
0.919667 0.206625 0.580616
0.895795 0.368481 0.526857
0.350973 0.61022 0.402055
0.397308 0.367005 0.239522
0.309702 0.221863 0.65176
0.37373 0.22279 0.664188
0.438151 0.222793 0.659576
0.502401 0.230044 0.74695
0.566281 0.230547 0.758196
0.630696 0.230532 0.755578
0.61979 0.633945 0.491444
0.197671 0.819277 0.27994
0.130355 0.799392 0.367153
0.887716 0.214621 0.567751
0.951873 0.214719 0.569932
0.642537 0.62943 0.527328
0.223268 0.574092 0.341647
0.686102 0.477059 0.27361
0.341621 0.23186 0.665297
0.405811 0.230848 0.652772
0.243925 0.771647 0.585683
0.534237 0.239197 0.753179
0.598591 0.240063 0.764045
0.662882 0.239269 0.754058
0.10631 0.450161 0.342356
0.030151 0.655281 0.456614
0.155519 0.57941 0.740086
0.91964 0.223639 0.56747
0.017003 0.60354 0.630234
0.168451 0.824556 0.324767
0.140081 0.536057 0.34985
0.171675 0.639783 0.342703
0.367327 0.241032 0.666717
0.431086 0.240686 0.657003
0.495915 0.247951 0.748792
0.55995 0.24935 0.767737
0.624392 0.248458 0.75825
0.136175 0.606629 0.735158
0.136052 0.552242 0.739025
0.822275 0.530585 0.538872
0.014186 0.594773 0.636702
0.945472 0.23211 0.558667
0.776678 0.556655 0.576686
0.54144 0.622359 0.453469
0.24577 0.249327 0.654207
0.309595 0.249921 0.664094
0.373731 0.250124 0.667421
0.549559 0.593071 0.596339
0.502273 0.257165 0.752778
0.566483 0.258673 0.772042
0.630645 0.257544 0.758365
0.151206 0.912547 0.050398
0.129618 0.552217 0.737314
0.88138 0.421838 0.398471
0.888083 0.241302 0.563476
0.896509 0.395606 0.462655
0.604713 0.432582 0.702369
0.549165 0.624003 0.456321
0.238894 0.258758 0.661733
0.303035 0.258722 0.664718
0.367352 0.259124 0.667444
0.431811 0.259566 0.671546
0.495778 0.266056 0.752966
0.559865 0.267293 0.7696
0.624311 0.266506 0.759415
0.489213 0.529904 0.639014
0.182286 0.753721 0.639981
0.090953 0.587991 0.731359
0.769632 0.443822 0.665813
0.890921 0.413353 0.481904
0.789877 0.549853 0.572336
0.548645 0.430867 0.704295
0.238888 0.26821 0.667505
0.303099 0.268097 0.66881
0.36732 0.268081 0.666745
0.164401 0.792173 0.538391
0.495751 0.275072 0.754621
0.559914 0.276158 0.768772
0.624405 0.275464 0.759704
0.437971 0.519603 0.623026
0.051844 0.758705 0.570177
0.097351 0.588004 0.732277
0.87106 0.36641 0.33451
0.29284 0.688261 0.470573
0.5036 0.607952 0.532966
0.603718 0.432036 0.70457
0.245298 0.277614 0.672413
0.309531 0.277276 0.669406
0.373715 0.277168 0.66738
0.130334 0.855141 0.264453
0.502123 0.284159 0.757975
0.566351 0.285162 0.769609
0.63077 0.284292 0.758189
0.425104 0.519686 0.621587
0.443931 0.571305 0.352551
0.643508 0.583045 0.615402
0.055056 0.400734 0.400233
0.489105 0.583354 0.575244
0.520666 0.616109 0.436561
0.226173 0.286767 0.672865
0.290257 0.287108 0.679132
0.354435 0.286768 0.673539
0.417622 0.285543 0.66639
0.483001 0.293223 0.757486
0.54716 0.294084 0.769964
0.611524 0.293936 0.768024
0.720564 0.529243 0.633566
0.57292 0.538967 0.650901
0.8561 0.484317 0.520554
0.497699 0.606591 0.418722
0.757729 0.580592 0.560499
0.121673 0.789848 0.523485
0.226142 0.295873 0.674579
0.290241 0.296296 0.680499
0.354286 0.295735 0.673342
0.418089 0.295336 0.672257
0.482838 0.302281 0.761712
0.547128 0.30299 0.770431
0.611511 0.302681 0.765855
0.707676 0.529224 0.635728
0.56647 0.539095 0.649702
0.463132 0.810472 0.377967
0.683439 0.626469 0.496378
0.736893 0.593424 0.552757
0.073049 0.469519 0.393375
0.213144 0.30459 0.673668
0.277444 0.3051 0.680369
0.341601 0.304484 0.6711
0.40569 0.303663 0.662587
0.461677 0.972887 0.287779
0.534245 0.311787 0.768849
0.598544 0.311641 0.766368
0.662954 0.31054 0.752061
0.43143 0.537413 0.605559
0.528711 0.592872 0.589013
0.097594 0.569834 0.723196
0.116717 0.783246 0.568781
0.376642 0.595756 0.373835
0.200373 0.314225 0.678846
0.264549 0.314882 0.686798
0.328808 0.313261 0.668852
0.393042 0.313151 0.666898
0.056691 0.470591 0.431821
0.521449 0.320468 0.765504
0.585676 0.320543 0.766347
0.649991 0.319937 0.758648
0.592213 0.52142 0.663819
0.309523 0.839958 0.432407
0.116849 0.624818 0.737751
0.392148 0.602416 0.42676
0.632902 0.63442 0.477923
0.178963 0.83498 0.291586
0.238966 0.32335 0.681264
0.303094 0.323398 0.682429
0.367325 0.323165 0.678866
0.043143 0.436404 0.444917
0.495757 0.329506 0.767167
0.560034 0.329366 0.765398
0.624252 0.329422 0.766363
0.129648 0.543186 0.735619
0.841424 0.47397 0.366381
0.13611 0.588492 0.739587
0.585746 0.574195 0.628266
0.697974 0.620515 0.510872
0.164316 0.846599 0.286099
0.219605 0.332314 0.68065
0.283835 0.332919 0.688947
0.348131 0.331839 0.674784
0.411904 0.331472 0.672256
0.476515 0.337852 0.759246
0.540739 0.338276 0.765379
0.604967 0.338314 0.76563
0.566671 0.378153 0.169679
0.733238 0.335034 0.720169
0.592135 0.574112 0.628205
0.084105 0.57864 0.721179
0.240597 0.786316 0.491021
0.147405 0.853812 0.279886
0.200383 0.34167 0.684528
0.264621 0.341983 0.689349
0.328765 0.340841 0.674979
0.393019 0.340394 0.669331
0.620323 0.632448 0.445734
0.521425 0.347124 0.764165
0.585697 0.347149 0.763774
0.650031 0.346876 0.759667
0.31592 0.537149 0.602948
0.795891 0.444085 0.647355
0.397785 0.600027 0.428842
0.096965 0.435068 0.612081
0.67424 0.629372 0.483846
0.174511 0.3501 0.678598
0.2389 0.350515 0.682882
0.302999 0.350755 0.687039
0.367279 0.350018 0.677922
0.661104 0.631941 0.460754
0.495866 0.355594 0.758962
0.559999 0.356054 0.764358
0.624261 0.355831 0.759647
0.646097 0.633727 0.482726
0.752415 0.352409 0.710665
0.471022 0.604182 0.446283
0.864858 0.438844 0.37287
0.671535 0.629879 0.492018
0.148853 0.358108 0.664697
0.213222 0.360077 0.689331
0.277413 0.359876 0.68794
0.341614 0.358621 0.670954
0.405964 0.35942 0.679374
0.691469 0.624542 0.471873
0.534347 0.364652 0.759733
0.598511 0.364637 0.759702
0.662795 0.364069 0.749378
0.726977 0.361527 0.709999
0.107482 0.840799 0.237176
0.835083 0.507753 0.552796
0.809562 0.536597 0.561535
0.5712 0.435537 0.692954
0.187471 0.368569 0.682493
0.251727 0.368933 0.687498
0.316213 0.368085 0.675065
0.38024 0.368406 0.678627
0.752169 0.595852 0.494234
0.50864 0.373503 0.75765
0.572862 0.373788 0.761638
0.637118 0.373175 0.750967
0.155409 0.543193 0.736421
0.593524 0.558774 0.312667
0.887683 0.413133 0.513985
0.853066 0.492916 0.494789
0.53144 0.61792 0.431249
0.155161 0.376386 0.666725
0.21961 0.378045 0.688142
0.283821 0.377592 0.68151
0.348063 0.376772 0.670973
0.412292 0.37751 0.68074
0.78674 0.569738 0.507175
0.54073 0.38255 0.757825
0.604996 0.382394 0.754873
0.669117 0.381149 0.738191
0.733374 0.379185 0.704284
0.715116 0.565133 0.609682
0.136075 0.714382 0.685988
0.839547 0.495023 0.563622
0.118931 0.779797 0.410165
0.187466 0.386311 0.676826
0.251749 0.386971 0.685886
0.316026 0.386244 0.676158
0.3803 0.386726 0.682673
0.517248 0.618274 0.491004
0.508718 0.390721 0.748248
0.572842 0.391345 0.754739
0.637067 0.390717 0.744686
0.8551 0.484156 0.526951
0.399447 0.545923 0.59636
0.88786 0.422258 0.430582
0.137793 0.921159 0.056423
0.547196 0.622069 0.437074
0.155414 0.39471 0.667661
0.219682 0.395742 0.684424
0.283889 0.395848 0.683433
0.348015 0.394828 0.668864
0.412303 0.396012 0.68546
0.522357 0.610091 0.548979
0.540765 0.399762 0.747598
0.604948 0.39976 0.747551
0.669079 0.398432 0.726662
0.733362 0.397087 0.701718
0.669155 0.565422 0.627762
0.665795 0.630284 0.508233
0.443522 0.574221 0.558993
0.366122 0.606013 0.50225
0.194031 0.404116 0.673174
0.258144 0.404471 0.677475
0.32256 0.404204 0.672563
0.38666 0.404671 0.68057
0.450785 0.404816 0.681757
0.515204 0.407463 0.732711
0.579288 0.408278 0.742072
0.643285 0.407491 0.731829
0.707538 0.406333 0.706509
0.123137 0.561279 0.738156
0.576275 0.629231 0.4755
0.159037 0.518145 0.338548
0.570388 0.626784 0.445651
0.162203 0.412796 0.665399
0.226047 0.41336 0.675015
0.290263 0.413818 0.68025
0.354427 0.412988 0.668088
0.418676 0.413792 0.68325
0.899189 0.236587 0.548106
0.547255 0.416495 0.730522
0.611207 0.416261 0.733231
0.675556 0.41555 0.711096
0.739669 0.414802 0.698053
0.147616 0.813208 0.134494
0.845501 0.483674 0.565587
0.309838 0.640213 0.519041
0.714565 0.614433 0.498665
0.200261 0.422086 0.668858
0.264551 0.422297 0.672002
0.328878 0.422204 0.669932
0.393118 0.42251 0.677257
0.457239 0.423156 0.684985
0.521693 0.423696 0.702654
0.539709 0.850555 0.270156
0.649938 0.423974 0.706349
0.714113 0.424161 0.700288
0.604963 0.530399 0.659323
0.144025 0.774582 0.607175
0.620251 0.622667 0.556228
0.590102 0.630958 0.462134
0.168151 0.430668 0.660636
0.232444 0.431432 0.672809
0.296676 0.431413 0.67271
0.360903 0.430809 0.664383
0.425186 0.4314 0.674647
0.489349 0.431901 0.678831
0.553839 0.431869 0.703132
0.617748 0.432177 0.699166
0.682024 0.433263 0.705284
0.367334 0.546102 0.59824
0.863117 0.46632 0.533346
0.487187 0.608755 0.452195
0.180278 0.822475 0.310611
0.142314 0.438831 0.6453
0.206797 0.440154 0.667835
0.270977 0.440045 0.665408
0.335348 0.440129 0.665158
0.399417 0.440321 0.669489
0.463678 0.440944 0.680627
0.367098 0.609308 0.483647
0.592175 0.44079 0.680207
0.656698 0.441388 0.696283
0.7204 0.441606 0.69414
0.637064 0.56528 0.627655
0.12966 0.533996 0.731807
0.791082 0.56144 0.545393
0.129297 0.447284 0.634932
0.193965 0.448857 0.662691
0.258083 0.449037 0.665945
0.32238 0.449236 0.665826
0.386577 0.448831 0.660522
0.450856 0.449692 0.675841
0.515033 0.449737 0.675175
0.024691 0.673528 0.520671
0.643836 0.449531 0.68328
0.707563 0.450334 0.692378
0.624145 0.565287 0.630795
0.33519 0.839945 0.428928
0.389581 0.599102 0.406737
0.093603 0.770953 0.589926
0.181023 0.45756 0.65409
0.245309 0.458163 0.663867
0.309507 0.458022 0.66218
0.373702 0.457566 0.652602
0.437971 0.458337 0.666347
0.502092 0.458767 0.671968
0.566465 0.459095 0.679517
0.630647 0.458542 0.672502
0.69485 0.458889 0.685972
0.367333 0.563533 0.586323
0.066301 0.469917 0.406312
0.626334 0.632076 0.512238
0.721856 0.606019 0.528888
0.181004 0.466397 0.649253
0.245296 0.466885 0.659585
0.309532 0.46686 0.658795
0.373711 0.466307 0.647623
0.438068 0.466924 0.661831
0.502215 0.467508 0.669365
0.566454 0.468209 0.680503
0.630573 0.467419 0.669797
0.69487 0.467463 0.677098
0.759567 0.466988 0.651687
0.498308 0.611401 0.446943
0.671349 0.626193 0.528624
0.189279 0.868423 0.013065
0.187455 0.475338 0.646759
0.251713 0.475697 0.653957
0.315933 0.475884 0.655027
0.380045 0.47535 0.643868
0.444397 0.476038 0.659649
0.508599 0.476706 0.670398
0.572866 0.477155 0.679544
0.637111 0.476436 0.666289
0.701279 0.47607 0.668151
0.765509 0.475338 0.648192
0.40471 0.598954 0.450074
0.72596 0.59889 0.548761
0.705416 0.476815 0.280072
0.206768 0.484233 0.64491
0.27099 0.484554 0.646906
0.335401 0.484901 0.647401
0.399379 0.484406 0.644431
0.463618 0.485248 0.659858
0.527984 0.485749 0.672223
0.592081 0.485967 0.675575
0.65631 0.485139 0.660315
0.720536 0.484773 0.655424
0.418891 0.936632 0.36179
0.863642 0.475331 0.494774
0.388917 0.868327 0.29946
0.168174 0.492557 0.641192
0.232452 0.493122 0.640113
0.296655 0.493456 0.642829
0.360988 0.493225 0.634414
0.425086 0.493347 0.641904
0.489365 0.494259 0.660469
0.553621 0.494888 0.673197
0.617773 0.494856 0.670884
0.682044 0.493873 0.652457
0.74626 0.493353 0.644169
0.325696 0.877794 0.399689
0.323705 0.600868 0.524816
0.15897 0.621048 0.339484
0.334915 0.830337 0.430238
0.264542 0.502184 0.63324
0.32881 0.502178 0.635463
0.392948 0.502011 0.630723
0.457032 0.503026 0.647953
0.521518 0.503488 0.663615
0.585712 0.503771 0.669884
0.649766 0.50334 0.660894
0.714199 0.502775 0.647679
0.874444 0.42125 0.379371
0.450725 0.945996 0.334114
0.4165 0.394654 0.241144
0.303096 0.830324 0.43898
0.219646 0.510823 0.63047
0.283828 0.510649 0.627834
0.348124 0.510983 0.626031
0.412219 0.510868 0.625812
0.268813 0.402222 0.25602
0.679736 0.458838 0.268683
0.249694 0.346356 0.259313
0.794449 0.530245 0.592526
0.689648 0.03007 0.683338
0.281221 0.557387 0.611572
0.570398 0.477791 0.251752
0.424535 0.593065 0.429256
0.5042 0.030513 0.72938
0.567922 0.033133 0.709865
0.633888 0.036132 0.692091
0.704658 0.040314 0.68154
0.4909 0.954673 0.283496
0.230613 0.392117 0.266375
0.178527 0.555306 0.340488
0.38914 0.830125 0.306116
0.325123 0.02198 0.683042
0.176774 0.84586 0.272241
0.510602 0.039519 0.727922
0.574495 0.042212 0.707736
0.641196 0.045517 0.691235
0.712006 0.049655 0.68097
0.755657 0.384706 0.702089
0.19832 0.345066 0.274884
0.202234 0.858988 0.008233
0.088835 0.761357 0.608091
0.298985 0.029718 0.690116
0.058639 0.507804 0.594974
0.485823 0.047639 0.73728
0.548799 0.050092 0.715654
0.613437 0.052896 0.696301
0.684227 0.05699 0.686163
0.74698 0.059285 0.66397
0.784534 0.056428 0.605142
0.365208 0.384812 0.246237
0.294566 0.393013 0.256808
0.251296 0.03629 0.700184
0.317468 0.039309 0.683215
0.616117 0.429301 0.708984
0.504683 0.057354 0.730733
0.567619 0.059803 0.709091
0.381107 0.878526 0.395286
0.705217 0.067027 0.682649
0.762744 0.068357 0.653246
0.800294 0.064948 0.593888
0.395371 0.858834 0.296213
0.028394 0.51255 0.514288
0.277907 0.566507 0.618174
0.309196 0.047768 0.682932
0.33049 0.793695 0.435034
0.497874 0.065986 0.732129
0.27323 0.774357 0.475863
0.392934 0.878468 0.37854
0.69596 0.074991 0.680674
0.757219 0.076868 0.656539
0.799418 0.074988 0.604176
0.382643 0.830022 0.307551
0.416573 0.385697 0.238552
0.472899 0.906997 0.302225
0.294552 0.055905 0.68428
0.151039 0.613033 0.728857
0.484186 0.074284 0.734982
0.887144 0.34975 0.565365
0.503812 0.973671 0.268435
0.683266 0.083115 0.684931
0.745697 0.085639 0.662286
0.795619 0.085257 0.621498
0.738093 0.468921 0.665286
0.91403 0.088214 0.567113
0.559901 0.445382 0.678344
0.747958 0.469018 0.656889
0.765851 0.469243 0.648911
0.788655 0.410291 0.670623
0.252485 0.758159 0.582041
0.516033 0.964088 0.252223
0.804634 0.469615 0.626229
0.721061 0.093554 0.671943
0.778148 0.094807 0.641526
0.814049 0.46957 0.617227
0.898557 0.097939 0.590126
0.943711 0.09666 0.542179
0.499575 0.907139 0.284338
0.751553 0.537419 0.617156
0.523657 0.91667 0.262788
0.184149 0.603977 0.708942
0.478467 0.954743 0.299603
0.400075 0.87834 0.366097
0.697241 0.102895 0.693967
0.750503 0.103116 0.658081
0.804494 0.103846 0.623309
0.77283 0.384905 0.692912
0.926083 0.107222 0.573587
0.476133 0.964178 0.307694
0.78381 0.495171 0.629933
0.236788 0.612416 0.649285
0.439858 0.840703 0.355836
0.133522 0.831313 0.166409
0.288746 0.678178 0.425776
0.67494 0.112498 0.718332
0.728715 0.112453 0.683037
0.780345 0.113161 0.644799
0.210146 0.548402 0.667092
0.904358 0.116696 0.598771
0.951423 0.115865 0.553714
0.001051 0.568318 0.521238
0.766601 0.452152 0.661387
0.189783 0.730805 0.649623
0.464629 0.831685 0.357861
0.470469 0.832032 0.355144
0.708805 0.389331 0.23617
0.698168 0.121953 0.70685
0.752465 0.12255 0.672523
0.80504 0.12275 0.635615
0.199866 0.576539 0.698116
0.926448 0.125955 0.5857
0.97125 0.124649 0.537276
0.011425 0.55054 0.470009
0.051185 0.444515 0.432228
0.421039 0.926041 0.363084
0.481792 0.945154 0.292831
0.491106 0.810568 0.334757
0.855293 0.465672 0.392071
0.732165 0.132436 0.699694
0.780265 0.131693 0.656325
0.82901 0.131073 0.613797
0.260235 0.717317 0.573403
0.953963 0.134845 0.569076
0.163352 0.712725 0.679157
0.514466 0.850581 0.317169
0.406768 0.822475 0.387268
0.457215 0.945219 0.325265
0.534824 0.879136 0.278839
0.255866 0.576167 0.643045
0.728443 0.141379 0.705753
0.777881 0.141039 0.664279
0.827522 0.140648 0.623086
0.900687 0.341736 0.501227
0.95119 0.143906 0.576436
0.37089 0.803169 0.425488
0.411491 0.814094 0.311309
0.433326 0.841024 0.357807
0.786484 0.418722 0.667515
0.278099 0.575769 0.618574
0.684221 0.149686 0.732195
0.741849 0.150636 0.702729
0.790351 0.150263 0.659844
0.837824 0.149631 0.615605
0.601139 0.455755 0.681098
0.961347 0.152698 0.568489
0.206153 0.567201 0.68476
0.250932 0.730612 0.591182
0.671934 0.518479 0.648461
0.199924 0.666264 0.641157
0.280673 0.63013 0.599974
0.699116 0.158414 0.719973
0.757053 0.159334 0.690812
0.80868 0.159481 0.652592
0.851738 0.157996 0.601651
0.924964 0.161521 0.595016
0.973799 0.16109 0.552634
0.382241 0.821679 0.396661
0.269284 0.529635 0.616463
0.643578 0.500636 0.66395
0.779813 0.52056 0.612854
0.293999 0.566212 0.596288
0.717537 0.167548 0.712765
0.77331 0.168302 0.680591
0.825885 0.168322 0.643639
0.598876 0.473218 0.678134
0.942862 0.170527 0.5872
0.986509 0.169436 0.53735
0.649678 0.500714 0.661443
0.25447 0.567079 0.641131
0.902507 0.359899 0.449868
0.842106 0.32796 0.289963
0.677365 0.175571 0.733739
0.737584 0.176856 0.708154
0.790278 0.177017 0.671336
0.840256 0.176932 0.630698
0.207045 0.603354 0.673952
0.958745 0.179239 0.576426
0.833339 0.410128 0.633809
0.184433 0.630432 0.341374
0.203267 0.745224 0.271636
0.85036 0.401543 0.334179
0.230599 0.548472 0.651075
0.694634 0.184378 0.725009
0.753837 0.185641 0.697774
0.805936 0.185775 0.660156
0.852814 0.185151 0.614975
0.22564 0.612256 0.655714
0.972435 0.187601 0.562195
0.501647 0.815166 0.334287
0.876054 0.403193 0.372951
0.54051 0.935501 0.231007
0.155799 0.676514 0.702037
0.65911 0.193235 0.752539
0.714446 0.193752 0.71985
0.768806 0.194205 0.685619
0.823936 0.19476 0.652675
0.864359 0.193144 0.597782
0.733364 0.477342 0.658463
0.983871 0.19568 0.544992
0.593116 0.437656 0.681119
0.516664 0.8692 0.297593
0.406482 0.812559 0.409016
0.859102 0.484387 0.481958
0.676346 0.202096 0.743819
0.731312 0.202542 0.710479
0.786243 0.203155 0.677045
0.839086 0.203439 0.640588
0.875818 0.200984 0.580387
0.950474 0.204461 0.575675
0.461604 0.822315 0.376135
0.446802 0.850324 0.34334
0.284402 0.774492 0.469477
0.145741 0.640104 0.721222
0.812019 0.477977 0.614444
0.695412 0.211288 0.737662
0.747208 0.211264 0.699568
0.801889 0.211847 0.665792
0.851912 0.211642 0.625112
0.171097 0.521895 0.712041
0.965151 0.21313 0.563292
0.423973 0.80376 0.40066
0.212469 0.731055 0.637313
0.84542 0.477419 0.57191
0.307405 0.593071 0.569746
0.874053 0.393771 0.360287
0.706813 0.220051 0.731632
0.757198 0.219905 0.691502
0.812782 0.22058 0.659009
0.860243 0.220042 0.614676
0.199071 0.865937 0.13025
0.972289 0.22126 0.551135
0.76387 0.427092 0.68004
0.15537 0.649263 0.712561
0.180812 0.703656 0.670394
0.839607 0.435132 0.609188
0.226804 0.538652 0.645483
0.712959 0.228802 0.72935
0.762903 0.228569 0.688499
0.818207 0.229244 0.655663
0.863482 0.228403 0.608017
0.036793 0.506577 0.515157
0.974117 0.229326 0.542571
0.201857 0.621312 0.666411
0.223557 0.731139 0.63075
0.358193 0.840388 0.407038
0.301261 0.59345 0.584109
0.677911 0.544567 0.634642
0.702251 0.237355 0.736578
0.756519 0.237799 0.702032
0.806915 0.237771 0.661914
0.855903 0.237441 0.619889
0.216431 0.675204 0.619851
0.015293 0.524702 0.489399
0.289317 0.638852 0.57845
0.529997 0.85096 0.305916
0.204967 0.509827 0.636034
0.273595 0.621318 0.612197
0.19429 0.509859 0.643144
0.67336 0.245625 0.751133
0.730724 0.24637 0.72144
0.77947 0.246182 0.678821
0.833879 0.246595 0.644588
0.874501 0.24503 0.590179
0.797386 0.452524 0.63819
0.888947 0.394951 0.398664
0.211847 0.639134 0.647113
0.292124 0.61196 0.59376
0.415109 0.840774 0.365243
0.077781 0.390453 0.355199
0.193341 0.540534 0.699911
0.698153 0.254899 0.741962
0.754335 0.25548 0.710369
0.802367 0.255087 0.666857
0.85123 0.254808 0.624561
0.888082 0.252444 0.564296
0.052347 0.681479 0.424397
0.066885 0.479538 0.553745
0.395014 0.784351 0.403717
0.872388 0.457573 0.417755
0.477541 0.805192 0.354068
0.804299 0.520617 0.591758
0.724517 0.548678 0.322755
0.721709 0.263711 0.731218
0.77283 0.263706 0.6918
0.824625 0.264032 0.65397
0.867923 0.262916 0.60346
0.037217 0.673778 0.572034
0.868884 0.448504 0.53979
0.785015 0.461034 0.642862
0.184254 0.648646 0.674957
0.427506 0.840819 0.360588
0.031877 0.656071 0.565727
0.324645 0.811974 0.437526
0.693647 0.272163 0.747098
0.750494 0.272938 0.716289
0.801336 0.272962 0.676863
0.848756 0.272415 0.632342
0.885866 0.270321 0.572771
0.59082 0.48914 0.258555
0.478038 0.9071 0.298361
0.243186 0.684549 0.602227
0.870739 0.448703 0.526982
0.469577 0.803952 0.365074
0.808087 0.452383 0.631188
0.154558 0.622153 0.722652
0.718888 0.281466 0.738518
0.772215 0.281661 0.702525
0.822085 0.28164 0.661763
0.864334 0.280376 0.609498
0.897604 0.277499 0.544285
0.544212 0.878275 0.270194
0.317944 0.727549 0.427156
0.194599 0.648242 0.656004
0.259278 0.693592 0.579901
0.19033 0.621543 0.683866
0.477987 0.813464 0.366021
0.67369 0.28883 0.751849
0.735273 0.290257 0.728353
0.786945 0.290334 0.690067
0.836248 0.290106 0.648381
0.875246 0.28846 0.591662
0.904543 0.284809 0.520004
0.843527 0.452011 0.591925
0.21649 0.684414 0.619956
0.276147 0.737427 0.50283
0.429432 0.926105 0.352671
0.672929 0.579012 0.616206
0.452866 0.813734 0.386229
0.685445 0.297677 0.746366
0.746345 0.299024 0.721818
0.797357 0.299017 0.682625
0.84404 0.298406 0.636987
0.881722 0.296527 0.578563
0.905179 0.291982 0.497437
0.409981 0.907062 0.36952
0.237697 0.648306 0.628088
0.892625 0.404408 0.424192
0.477146 0.926092 0.297245
0.22306 0.566796 0.663047
0.871289 0.383098 0.586832
0.69109 0.306408 0.743397
0.752078 0.307748 0.718938
0.802139 0.307596 0.678302
0.848461 0.306983 0.632351
0.885868 0.304991 0.573078
0.839147 0.418263 0.619772
0.414748 0.859489 0.353431
0.825849 0.503308 0.577519
0.37716 0.831011 0.389306
0.482578 0.841294 0.338717
0.090368 0.526301 0.702224
0.544525 0.867961 0.276904
0.689386 0.314818 0.741021
0.751871 0.316346 0.718648
0.801273 0.316122 0.677084
0.848276 0.315613 0.632196
0.886345 0.313712 0.573706
0.18786 0.521433 0.680351
0.431374 0.859431 0.34355
0.318439 0.774691 0.450992
0.756837 0.537413 0.613499
0.488799 0.841384 0.336471
0.901338 0.35979 0.430649
0.481278 0.805173 0.348904
0.688566 0.323361 0.739906
0.751038 0.324915 0.717567
0.79992 0.324503 0.675036
0.848029 0.324193 0.631748
0.886355 0.32243 0.5741
0.763085 0.410394 0.690182
0.472128 0.878494 0.312202
0.315065 0.583733 0.558501
0.465963 0.868808 0.274137
0.529714 0.878815 0.282772
0.483766 0.964223 0.295986
0.195493 0.549712 0.70317
0.678892 0.332091 0.748508
0.737032 0.333076 0.719949
0.790551 0.33333 0.684238
0.83949 0.333032 0.642005
0.878786 0.33147 0.585764
0.284482 0.547933 0.604761
0.822174 0.418637 0.640262
0.453355 0.887929 0.319
0.533271 0.869733 0.287916
0.200656 0.693958 0.642361
0.872554 0.400024 0.577399
0.402445 0.888006 0.36982
0.818047 0.452505 0.622979
0.710834 0.340903 0.727063
0.771498 0.342176 0.702067
0.823696 0.342312 0.664595
0.864661 0.340978 0.610585
0.788429 0.435845 0.659106
0.164976 0.604215 0.726364
0.828909 0.460656 0.604977
0.170796 0.568126 0.734634
0.184519 0.500091 0.63997
0.502175 0.926073 0.27698
0.792587 0.418848 0.66506
0.186033 0.559115 0.722867
0.684919 0.349468 0.746097
0.178609 0.511317 0.677508
0.794467 0.35043 0.678766
0.844054 0.35026 0.637521
0.881204 0.348374 0.578139
0.447745 0.813554 0.390049
0.255814 0.721357 0.586951
0.218574 0.585056 0.668024
0.178912 0.712764 0.667672
0.827041 0.452229 0.613652
0.777961 0.410198 0.677791
0.873342 0.339477 0.334566
0.189587 0.612686 0.6942
0.705202 0.358093 0.730308
0.764659 0.359244 0.703628
0.818772 0.35958 0.668883
0.859586 0.358277 0.615015
0.899107 0.386781 0.449845
0.876058 0.375902 0.347269
0.115733 0.778525 0.378749
0.300016 0.736964 0.457672
0.899511 0.386737 0.443443
0.427925 0.897389 0.338749
0.468882 0.869097 0.318789
0.29008 0.698082 0.47056
0.203708 0.548941 0.680978
0.719213 0.36652 0.716784
0.779183 0.367735 0.690641
0.831711 0.36791 0.653694
0.869061 0.366136 0.594995
0.705085 0.39196 0.718967
0.803892 0.43553 0.647758
0.434722 0.868898 0.337131
0.135125 0.948661 0.050455
0.498084 0.88807 0.293335
0.512152 0.926201 0.268724
0.304551 0.629295 0.554778
0.878971 0.339949 0.347408
0.685829 0.562088 0.623677
0.257196 0.529526 0.621567
0.79988 0.376422 0.675563
0.847478 0.375953 0.631307
0.28604 0.765301 0.471731
0.892329 0.368062 0.385812
0.484971 0.897479 0.297011
0.170544 0.577124 0.734244
0.164923 0.622005 0.714993
0.384361 0.403356 0.247434
0.412552 0.803599 0.406768
0.211316 0.675236 0.623722
0.676568 0.570643 0.621612
0.119339 0.751518 0.327505
0.072348 0.698897 0.411548
0.727766 0.016495 0.335257
0.741124 0.028114 0.649456
0.0384 0.43693 0.521801
0.576825 0.477746 0.252637
0.861059 0.041007 0.412313
0.732517 0.026383 0.335263
0.709471 0.023941 0.271243
0.756278 0.038428 0.636954
0.548584 0.926574 0.212558
0.173057 0.192489 0.54174
0.89078 0.052451 0.431127
0.74973 0.03749 0.360929
0.730689 0.034871 0.296512
0.208006 0.805436 0.155908
0.774636 0.049048 0.611446
0.213123 0.896188 0.027509
0.920971 0.064434 0.475891
0.897654 0.062951 0.412308
0.749227 0.046338 0.341476
0.728889 0.043979 0.277106
0.20341 0.875963 0.09165
0.770193 0.058268 0.636915
0.135337 0.230441 0.568705
0.931852 0.074632 0.50793
0.930403 0.075075 0.443836
0.799341 0.431452 0.294232
0.745944 0.055203 0.309396
0.512565 0.404635 0.193544
0.202522 0.815269 0.098143
0.024811 0.673515 0.514276
0.145576 0.804216 0.147454
0.945675 0.085117 0.507883
0.940775 0.08466 0.443727
0.809996 0.425205 0.300654
0.752157 0.064559 0.315631
0.717149 0.476667 0.284708
0.522906 0.831146 0.302228
0.256765 0.727183 0.579896
0.549043 0.915687 0.212432
0.946045 0.093841 0.533693
0.958544 0.095518 0.469332
0.933414 0.093227 0.405528
0.779749 0.077543 0.341549
0.745757 0.073839 0.277191
0.032643 0.656289 0.604283
0.54928 0.887511 0.25136
0.307304 0.639147 0.438579
0.207154 0.755712 0.329456
0.966639 0.105076 0.507834
0.963931 0.104952 0.443625
0.919271 0.100885 0.380293
0.782889 0.08706 0.315764
0.726626 0.081338 0.251773
0.520355 0.832514 0.296839
0.208335 0.765539 0.258819
0.208712 0.795552 0.284401
0.96594 0.114042 0.533542
0.975611 0.11509 0.469236
0.95202 0.112849 0.40532
0.798741 0.097502 0.341238
0.770138 0.095755 0.277879
0.20485 0.866034 0.104579
0.167474 0.194239 0.539016
0.21973 0.716309 0.374046
0.183099 0.183194 0.529138
0.981334 0.124461 0.475624
0.962058 0.122795 0.411638
0.810856 0.107958 0.347664
0.785975 0.105745 0.283733
0.750013 0.576571 0.382583
0.20518 0.73541 0.310145
0.193979 0.794537 0.104502
0.060948 0.506744 0.676496
0.985174 0.133887 0.48846
0.972491 0.132662 0.424225
0.025078 0.541356 0.437877
0.797188 0.115681 0.296223
0.926563 0.233333 0.413563
0.049642 0.505787 0.438057
0.276785 0.668184 0.560579
0.291416 0.66828 0.42581
0.986882 0.142938 0.507753
0.982714 0.142513 0.44342
0.94451 0.138625 0.37977
0.808629 0.125822 0.315433
0.525156 0.551652 0.307894
0.208441 0.865995 0.078875
0.882309 0.421924 0.52686
0.900552 0.377808 0.437039
0.262179 0.76708 0.53484
0.99213 0.152327 0.475547
0.971522 0.150456 0.411463
0.836373 0.137976 0.348214
0.796342 0.133836 0.283266
0.551976 0.596045 0.350235
0.101749 0.28467 0.593971
0.207766 0.845892 0.117424
0.207112 0.745718 0.342311
0.991701 0.161201 0.514172
0.991096 0.161396 0.449905
0.956719 0.157943 0.385913
0.824133 0.14591 0.322243
0.771064 0.139809 0.258296
0.512446 0.468298 0.254734
0.272666 0.757054 0.502626
0.283983 0.668313 0.541258
0.171465 0.185871 0.524432
0.994735 0.170395 0.507726
0.992055 0.170118 0.443344
0.27497 0.457149 0.2687
0.825882 0.154989 0.315734
0.769433 0.149408 0.251101
0.388672 0.478947 0.269595
0.059951 0.400385 0.387217
0.286575 0.6683 0.53479
0.046131 0.401303 0.419345
0.995763 0.179351 0.50777
0.994192 0.179252 0.443378
0.023526 0.620111 0.443966
0.832269 0.16463 0.3158
0.773998 0.158991 0.251334
0.897617 0.368632 0.507631
0.212474 0.815777 0.213774
0.288979 0.668184 0.52827
0.295563 0.678447 0.470595
0.9965 0.188357 0.507727
0.994573 0.188178 0.443251
0.17248 0.399569 0.290526
0.835319 0.173645 0.315314
0.777729 0.168338 0.250826
0.900653 0.377832 0.456257
0.210854 0.775667 0.278048
0.271797 0.707523 0.521929
0.04913 0.514766 0.587104
0.998509 0.197444 0.501213
0.990902 0.196674 0.436808
0.04303 0.384174 0.438673
0.832296 0.182347 0.308698
0.770983 0.176927 0.243964
0.885707 0.376885 0.559004
0.295449 0.678422 0.464194
0.034405 0.507078 0.476744
0.098444 0.263088 0.555383
0.995716 0.20615 0.514173
0.993756 0.205926 0.449695
0.052309 0.488433 0.476778
0.84651 0.192825 0.321867
0.784932 0.187326 0.257267
0.021687 0.515852 0.502245
0.253064 0.736894 0.579471
0.813639 0.354264 0.273149
0.884375 0.385645 0.379311
0.892006 0.349964 0.379485
0.99696 0.215125 0.46897
0.028237 0.735082 0.475478
0.861959 0.203272 0.3411
0.811897 0.198797 0.277375
0.100848 0.680496 0.366942
0.897293 0.350402 0.39858
0.452154 0.567548 0.343479
0.288792 0.668248 0.419384
0.208052 0.755693 0.303775
0.996184 0.22395 0.494999
0.983074 0.222932 0.430285
0.873489 0.213298 0.366708
0.834556 0.209743 0.302352
0.205017 0.915276 0.001951
0.009967 0.559217 0.469957
0.320762 0.727587 0.412809
0.597974 0.496243 0.263915
0.287351 0.2537 0.66041
0.985997 0.231985 0.520446
0.989114 0.232291 0.456116
0.064747 0.478825 0.419068
0.859851 0.22101 0.328048
0.789418 0.214895 0.264094
0.010346 0.551395 0.636919
0.207031 0.765661 0.322994
0.112859 0.849296 0.166344
0.278771 0.667914 0.40021
0.5507 0.906824 0.231914
0.987837 0.241325 0.48747
0.385276 0.576392 0.347507
0.876898 0.231585 0.360207
0.832793 0.22773 0.295994
0.755688 0.574356 0.385116
0.546981 0.878789 0.23297
0.01384 0.60338 0.585307
0.297565 0.668659 0.489861
0.289301 0.678306 0.50912
0.209857 0.845526 0.040391
0.848167 0.447142 0.346958
0.033485 0.691582 0.604047
0.865641 0.239596 0.334404
0.802765 0.234112 0.270147
0.059737 0.487939 0.438149
0.208687 0.855873 0.072488
0.291676 0.70708 0.425361
0.544231 0.859496 0.257891
0.89806 0.350513 0.404981
0.86984 0.448613 0.533398
0.032812 0.673669 0.552727
0.881947 0.250027 0.366562
0.836273 0.246164 0.302226
0.700491 0.567676 0.328003
0.01568 0.559706 0.585514
0.448673 0.385503 0.194322
0.212399 0.795616 0.258735
0.053609 0.510771 0.591512
0.260468 0.737106 0.560612
0.886616 0.340537 0.366541
0.896198 0.260348 0.405251
0.869386 0.257961 0.341027
0.814655 0.253333 0.276894
0.529017 0.585126 0.349636
0.013188 0.568473 0.598289
0.895066 0.386533 0.50761
0.273113 0.667413 0.393364
0.213385 0.90649 0.021037
0.208676 0.845687 0.059629
0.261796 0.766791 0.541206
0.893316 0.269048 0.392232
0.858853 0.266098 0.328145
0.80483 0.261553 0.264068
0.305479 0.810093 0.348228
0.893306 0.395425 0.507586
0.288853 0.68812 0.43213
0.206897 0.835565 0.066058
0.178671 0.190784 0.544448
0.207642 0.845783 0.091721
0.905992 0.279115 0.443595
0.889782 0.277777 0.379504
0.842596 0.273777 0.31527
0.308417 0.860427 0.35947
0.025506 0.515749 0.470237
0.211006 0.855815 0.046761
0.266422 0.747157 0.54763
0.878486 0.448709 0.443444
0.302049 0.658865 0.483453
0.142351 0.751351 0.124631
0.903882 0.28797 0.43073
0.883772 0.286272 0.366833
0.837311 0.282466 0.30269
0.153591 0.831185 0.102234
0.20609 0.906246 0.046691
0.882789 0.421858 0.404967
0.283993 0.698037 0.502742
0.869349 0.447964 0.392324
0.86315 0.457232 0.552634
0.90604 0.297156 0.48201
0.902095 0.296794 0.417922
0.876327 0.294696 0.354072
0.828368 0.290748 0.28982
0.1308 0.939291 0.050664
0.015722 0.612256 0.585322
0.181142 0.210537 0.584234
0.278864 0.017086 0.692091
0.074154 0.479281 0.566801
0.901353 0.305821 0.533296
0.906082 0.306159 0.469167
0.899368 0.305504 0.405163
0.869401 0.303154 0.340966
0.820853 0.299175 0.27722
0.143653 0.84033 0.127895
0.208727 0.835828 0.136683
0.139755 0.500495 0.68795
0.271247 0.71733 0.515354
0.851316 0.447277 0.353463
0.902317 0.314879 0.520513
0.905604 0.315103 0.456346
0.89316 0.314017 0.392251
0.866606 0.312013 0.328258
0.033708 0.39381 0.522145
0.035623 0.67383 0.584893
0.205633 0.805269 0.143027
0.291739 0.707696 0.438547
0.901064 0.377813 0.443452
0.892162 0.323159 0.559052
0.902877 0.323882 0.494828
0.902609 0.323846 0.430649
0.885406 0.322474 0.366717
0.853022 0.31982 0.302464
0.027114 0.655711 0.488778
0.009281 0.560117 0.636884
0.208643 0.835783 0.130256
0.201749 0.805128 0.117357
0.210876 0.795442 0.188067
0.896146 0.33246 0.546184
0.902833 0.332865 0.481953
0.898583 0.332475 0.417973
0.38141 0.607028 0.441517
0.363338 0.611742 0.434933
0.206268 0.926676 0.023789
0.295229 0.649045 0.551372
0.342367 0.615852 0.455616
0.187651 0.942797 0.035775
0.202277 0.910401 0.050312
0.156268 0.952637 0.034391
0.188101 0.92861 0.054521
0.386404 0.567092 0.576688
0.179606 0.931416 0.060702
0.243824 0.782231 0.538744
0.570288 0.418174 0.731366
0.156778 0.946349 0.061729
0.204638 0.758332 0.628958
0.319719 0.62539 0.447187
0.319752 0.863381 0.416766
0.695231 0.620971 0.519037
0.157271 0.939746 0.071135
0.135684 0.791525 0.509645
0.147064 0.777151 0.121868
0.440718 0.592294 0.51052
0.14449 0.769527 0.617386
0.179693 0.78963 0.366306
0.53477 0.962335 0.21989
0.192603 0.893619 0.093168
0.147633 0.940222 0.076966
0.106891 0.776284 0.584529
0.424654 0.562898 0.571442
0.206533 0.787209 0.562729
0.06261 0.775584 0.512732
0.517255 0.407978 0.732494
0.420721 0.593328 0.503267
0.531554 0.961352 0.228559
0.196726 0.880588 0.103842
0.153077 0.929946 0.088241
0.588285 0.420457 0.728201
0.099263 0.775866 0.582188
0.370437 0.576192 0.570758
0.187144 0.789662 0.555814
0.37913 0.588331 0.545104
0.220846 0.78902 0.465271
0.414418 0.594561 0.50099
0.234996 0.804498 0.424075
0.152934 0.756874 0.639655
0.177304 0.902669 0.106323
0.125472 0.936632 0.087538
0.449329 0.597368 0.494749
0.091064 0.773541 0.579483
0.086997 0.774864 0.445859
0.785804 0.532474 0.59853
0.764318 0.557682 0.590548
0.472187 0.579044 0.356504
0.574168 0.592718 0.340521
0.705556 0.603418 0.568812
0.509588 0.983857 0.239427
0.187094 0.887325 0.119159
0.138918 0.927145 0.101482
0.119114 0.781223 0.579268
0.045964 0.383954 0.432175
0.660285 0.622166 0.552228
0.056908 0.762462 0.454752
0.433703 0.592031 0.507974
0.001939 0.58573 0.546914
0.035872 0.436988 0.496238
0.198232 0.382044 0.276636
0.118677 0.784023 0.438178
0.00608 0.550964 0.54061
0.183992 0.887203 0.127393
0.134893 0.924261 0.108906
0.012704 0.54266 0.630556
0.01059 0.612224 0.566078
0.170522 0.790157 0.559366
0.450192 0.576032 0.360044
0.270604 0.757164 0.511716
0.035971 0.402063 0.457926
0.105313 0.423956 0.335725
0.0804 0.504387 0.399513
0.320863 0.593495 0.543166
0.508722 0.980832 0.256624
0.193589 0.871731 0.140208
0.146598 0.913863 0.123034
0.177496 0.780908 0.590016
0.112985 0.75173 0.359516
0.102874 0.787755 0.507585
0.498258 0.580849 0.588218
0.151853 0.791852 0.403034
0.112226 0.38832 0.316498
0.014372 0.594786 0.649492
0.036845 0.436815 0.477035
0.009754 0.542223 0.540665
0.196939 0.788609 0.466087
0.419466 0.558607 0.579098
0.177906 0.887029 0.143722
0.124697 0.916619 0.123838
0.408259 0.598563 0.460845
0.058311 0.471067 0.53458
0.294229 0.654337 0.541451
0.599997 0.584279 0.614511
0.840218 0.497579 0.397952
0.795215 0.544156 0.381859
0.116317 0.778699 0.385207
0.003351 0.603354 0.540376
0.31458 0.634138 0.454677
0.209099 0.790003 0.498351
0.260752 0.769277 0.535851
0.16514 0.894749 0.148186
0.354253 0.613649 0.441029
0.972909 0.248831 0.452678
0.335017 0.61636 0.433897
0.127423 0.753798 0.640557
0.32861 0.611408 0.507577
0.831687 0.514265 0.404458
0.784076 0.555081 0.386878
0.038136 0.410586 0.445067
0.444801 0.566719 0.344567
0.399948 0.582622 0.543199
0.066639 0.766663 0.448331
0.386374 0.574413 0.567055
0.166822 0.890427 0.158011
0.681295 0.60029 0.587706
0.976867 0.249167 0.463654
0.73632 0.545178 0.326483
0.612324 0.437027 0.688715
0.312577 0.854691 0.423159
0.835061 0.512814 0.414632
0.788338 0.555987 0.397722
0.101565 0.397757 0.32946
0.04208 0.428205 0.541052
0.01337 0.542185 0.553515
0.36474 0.578383 0.568566
0.040328 0.384362 0.445196
0.18792 0.870433 0.174968
0.135254 0.90229 0.155451
0.584034 0.628152 0.515244
0.943835 0.258456 0.46079
0.40723 0.554555 0.584649
0.231648 0.791345 0.459787
0.854459 0.489294 0.430823
0.812325 0.541857 0.415884
0.761258 0.576128 0.397162
0.031461 0.655307 0.450179
0.09144 0.707465 0.385755
0.257778 0.820343 0.432108
0.159635 0.789399 0.462056
0.156844 0.792385 0.517088
0.171065 0.883581 0.178003
0.402802 0.598569 0.496705
0.983088 0.246368 0.48495
0.919486 0.256148 0.460776
0.405995 0.573771 0.55503
0.600775 0.600791 0.595917
0.840955 0.509647 0.43541
0.796028 0.556115 0.419096
0.744265 0.588897 0.399718
0.02482 0.700284 0.559022
0.045518 0.462666 0.502486
0.411567 0.59645 0.49043
0.299818 0.653168 0.524595
0.253575 0.759187 0.580039
0.162641 0.886342 0.184094
0.126444 0.785693 0.440914
0.975968 0.252124 0.491854
0.912369 0.260747 0.467668
0.353225 0.598563 0.526045
0.301243 0.657574 0.506161
0.835133 0.517868 0.442602
0.789789 0.56311 0.425858
0.7377 0.595293 0.406643
0.03417 0.69164 0.616879
0.043994 0.462659 0.489669
0.395489 0.580104 0.551252
0.206349 0.790394 0.50668
0.38362 0.59108 0.537189
0.169774 0.879412 0.195931
0.202162 0.786586 0.44934
0.978128 0.248885 0.502156
0.915411 0.259923 0.478404
0.227904 0.789245 0.467716
0.353081 0.607355 0.497558
0.837608 0.514882 0.452617
0.793314 0.562525 0.436337
0.741747 0.595704 0.417135
0.769906 0.511741 0.323985
0.09464 0.433334 0.348653
0.172106 0.36681 0.675121
0.130548 0.775198 0.602446
0.522208 0.455447 0.677341
0.181107 0.867055 0.209288
0.121908 0.885308 0.18725
0.555237 0.625281 0.504762
0.932667 0.260563 0.494696
0.606916 0.591568 0.607299
0.624295 0.600502 0.595049
0.848138 0.500913 0.465608
0.805945 0.553045 0.450281
0.756111 0.589462 0.43169
0.700539 0.614722 0.411191
0.039026 0.411005 0.541215
0.416305 0.458562 0.252377
0.376319 0.607972 0.477518
0.057693 0.769367 0.47334
0.715267 0.588139 0.581589
0.157818 0.880973 0.209878
0.145783 0.763792 0.627393
0.961435 0.255522 0.514939
0.905857 0.279362 0.494037
0.140465 0.787266 0.427144
0.207069 0.789489 0.544195
0.82605 0.53135 0.466959
0.780178 0.57539 0.449784
0.727264 0.605865 0.430163
0.667477 0.622975 0.408117
0.038301 0.427927 0.45146
0.007157 0.542274 0.514954
0.602747 0.621241 0.559196
0.110584 0.78613 0.547819
0.412759 0.559301 0.57692
0.169927 0.870343 0.223578
0.643771 0.622673 0.555572
0.968006 0.247213 0.526843
0.908261 0.264259 0.504528
0.361895 0.603881 0.510289
0.624354 0.624934 0.548479
0.832395 0.522583 0.478385
0.788164 0.57002 0.461851
0.736292 0.602622 0.442552
0.678895 0.624093 0.42157
0.038018 0.411048 0.534899
0.087479 0.504079 0.393244
0.023667 0.58476 0.437749
0.375328 0.579699 0.562945
0.590562 0.625994 0.536204
0.19397 0.842604 0.241644
0.143664 0.878905 0.223232
0.362851 0.589263 0.548616
0.934653 0.255313 0.523858
0.432155 0.57995 0.535861
0.344756 0.603071 0.513598
0.850566 0.496507 0.494133
0.809378 0.550592 0.479002
0.76114 0.590091 0.461034
0.706404 0.617053 0.440697
0.643447 0.627754 0.41752
0.042704 0.42765 0.438656
0.117452 0.493796 0.354712
0.517059 0.61643 0.509644
0.732906 0.591472 0.560508
0.401927 0.934827 0.326715
0.186711 0.847659 0.248201
0.130664 0.873105 0.227697
0.46968 0.604041 0.492617
0.91425 0.247656 0.525646
0.514706 0.417652 0.712072
0.338512 0.613932 0.483285
0.840683 0.509969 0.499722
0.798182 0.561196 0.483961
0.748549 0.598062 0.465472
0.692656 0.622667 0.444848
0.627761 0.629475 0.420897
0.752405 0.562198 0.359594
0.391056 0.574349 0.349701
0.107055 0.804871 0.269447
0.610811 0.426613 0.717145
0.417644 0.945328 0.341693
0.200102 0.82586 0.262338
0.153455 0.869014 0.245111
0.323887 0.571703 0.563686
0.930983 0.246388 0.541292
0.314206 0.638184 0.482891
0.112418 0.776033 0.398573
0.850554 0.494702 0.512503
0.80965 0.549352 0.49743
0.76192 0.589815 0.479527
0.70783 0.6181 0.459584
0.646398 0.631498 0.437086
0.57285 0.621742 0.409544
0.047294 0.453912 0.528115
0.093737 0.768294 0.418205
0.610746 0.571286 0.628222
0.607897 0.434509 0.696628
0.12926 0.384328 0.653913
0.180385 0.847158 0.26432
0.327004 0.619481 0.440181
0.948459 0.232956 0.557357
0.316376 0.625531 0.436465
0.619129 0.596103 0.602337
0.629133 0.604304 0.587625
0.824665 0.531208 0.512325
0.779513 0.57661 0.495323
0.727701 0.609186 0.476031
0.669756 0.6297 0.45475
0.601333 0.62934 0.429465
0.486924 0.468189 0.252059
0.120378 0.639346 0.351982
0.25619 0.346442 0.258587
0.182357 0.021747 0.639214
0.222238 0.024019 0.690311
0.320827 0.017514 0.681092
0.126763 0.630091 0.34861
0.171729 0.621119 0.339545
0.172733 0.016655 0.485965
0.191218 0.022494 0.558093
0.188924 0.03133 0.650461
0.23392 0.032743 0.696653
0.350012 0.022786 0.673
0.394834 0.024249 0.717964
0.118881 0.375453 0.646397
0.14202 0.023936 0.443975
0.18197 0.026007 0.494726
0.183164 0.034359 0.583843
0.197853 0.040506 0.659665
0.076898 0.468819 0.576638
0.361976 0.031772 0.678207
0.404501 0.033542 0.726299
0.35893 0.356845 0.248944
0.062469 0.530669 0.703251
0.150438 0.033417 0.453439
0.194347 0.0349 0.500317
0.187569 0.044124 0.598934
0.205602 0.049825 0.66979
0.158801 0.296367 0.653315
0.370051 0.041154 0.68767
0.414735 0.042729 0.733871
0.505488 0.420619 0.695633
0.422904 0.403857 0.241906
0.149196 0.039082 0.418285
0.178467 0.042926 0.479609
0.226522 0.043908 0.523431
0.195463 0.057176 0.644068
0.238576 0.058676 0.691142
0.3568 0.049331 0.665925
0.394031 0.051499 0.718019
0.070866 0.408625 0.593628
0.148605 0.314432 0.654859
0.365123 0.40303 0.25089
0.160006 0.050898 0.452316
0.206477 0.051792 0.496846
0.195162 0.061749 0.598114
0.214166 0.067094 0.66979
0.151305 0.287345 0.644095
0.377022 0.059001 0.689243
0.424613 0.059842 0.732612
0.10279 0.907107 0.10283
0.127136 0.41007 0.646206
0.046739 0.55232 0.703784
0.18192 0.059546 0.466634
0.232383 0.059804 0.507004
0.048958 0.354642 0.553675
0.083315 0.400447 0.608592
0.070529 0.399971 0.594246
0.395466 0.068417 0.706961
0.346088 0.356504 0.253018
0.129316 0.461863 0.633402
0.120199 0.791884 0.361171
0.167488 0.065627 0.426589
0.206565 0.068049 0.478119
0.030711 0.569224 0.691932
0.215401 0.082952 0.649986
0.097678 0.331585 0.623649
0.375213 0.075557 0.672379
0.468606 0.378868 0.733524
0.024187 0.611992 0.660559
0.119846 0.39274 0.644932
0.123473 0.836284 0.293153
0.197592 0.076385 0.459717
0.251381 0.075906 0.496728
0.037105 0.724697 0.590559
0.080006 0.38281 0.603385
0.113919 0.61119 0.349271
0.40963 0.085137 0.701452
0.066717 0.391105 0.589262
0.058317 0.578286 0.709893
0.072725 0.700297 0.673404
0.075624 0.382675 0.598708
0.252664 0.08408 0.486184
0.047644 0.716739 0.625398
0.10369 0.726579 0.668806
0.038641 0.638576 0.672747
0.416195 0.093033 0.6947
0.072377 0.373734 0.593188
0.431749 0.297888 0.700211
0.067621 0.70022 0.66943
0.436612 0.298678 0.713578
0.248797 0.092209 0.471676
0.430837 0.334138 0.709096
0.03884 0.621254 0.682173
0.439876 0.352116 0.717788
0.406931 0.100956 0.676537
0.033285 0.741845 0.5666
0.11529 0.800356 0.329702
0.5897 0.477669 0.255093
0.472227 0.387549 0.729703
0.237147 0.099699 0.446681
0.279783 0.101319 0.494882
0.092568 0.365876 0.618666
0.390934 0.35778 0.238791
0.395467 0.108018 0.651153
0.132725 0.750619 0.186245
0.445459 0.361169 0.720854
0.101953 0.313846 0.619875
0.451307 0.271568 0.717774
0.129185 0.366966 0.654402
0.268731 0.109592 0.478475
0.052134 0.354804 0.559424
0.480173 0.403906 0.71233
0.129703 0.392984 0.653208
0.105748 0.461221 0.611647
0.076035 0.674761 0.698139
0.456145 0.378386 0.71884
0.053992 0.699848 0.655792
0.112554 0.791294 0.323766
0.248305 0.117564 0.45323
0.080977 0.751537 0.618362
0.279911 0.128674 0.602456
0.079663 0.657548 0.713224
0.424934 0.123805 0.639965
0.429935 0.279219 0.684665
0.100145 0.452409 0.608405
0.673561 0.361923 0.196825
0.025212 0.700284 0.571901
0.428137 0.324943 0.703036
0.265922 0.127197 0.471705
0.114643 0.934666 0.070297
0.294817 0.138581 0.623602
0.074222 0.657291 0.709503
0.446315 0.132806 0.654539
0.29183 0.85017 0.415018
0.17259 0.38102 0.289886
0.038795 0.51431 0.665497
0.141962 0.349594 0.660449
0.110559 0.844454 0.242814
0.278469 0.136623 0.48602
0.055808 0.734209 0.616812
0.307815 0.147825 0.637806
0.033274 0.733143 0.576054
0.457108 0.14256 0.670719
0.498376 0.144441 0.720215
0.056772 0.534991 0.703444
0.456753 0.395035 0.699678
0.040194 0.630008 0.680537
0.124824 0.323048 0.642072
0.277209 0.1473 0.505117
0.278454 0.154655 0.594126
0.317527 0.156842 0.64605
0.165273 0.649167 0.343497
0.464456 0.152032 0.681263
0.055852 0.416528 0.57213
0.055032 0.639449 0.701795
0.067566 0.417114 0.587543
0.080223 0.417561 0.602115
0.078949 0.400302 0.603922
0.259663 0.159337 0.531245
0.280989 0.163848 0.600308
0.32285 0.165632 0.649746
0.093843 0.417946 0.615681
0.467454 0.161342 0.68716
0.108351 0.418325 0.628402
0.068834 0.364758 0.587871
0.138774 0.418814 0.652427
0.502355 0.438041 0.679734
0.461224 0.468099 0.252794
0.25311 0.169822 0.546515
0.283251 0.173124 0.606895
0.327831 0.174512 0.653612
0.448853 0.261891 0.702633
0.470618 0.17058 0.692769
0.518174 0.171414 0.736055
0.166493 0.36678 0.67167
0.057551 0.569783 0.711084
0.117864 0.827312 0.299156
0.184915 0.536892 0.335653
0.267338 0.752546 0.37898
0.278968 0.181613 0.601782
0.321355 0.183464 0.650609
0.058367 0.665564 0.688662
0.466663 0.179344 0.687441
0.446732 0.352573 0.729021
0.028329 0.534439 0.677314
0.068848 0.329635 0.580031
0.053931 0.759302 0.572756
0.087989 0.657413 0.376438
0.440174 0.878141 0.277274
0.267358 0.189931 0.594974
0.31053 0.19225 0.642797
0.433704 0.325552 0.715477
0.459286 0.187715 0.676233
0.496193 0.190135 0.730027
0.204204 0.55539 0.338481
0.101165 0.871095 0.169433
0.112398 0.544317 0.729325
0.419777 0.296721 0.675959
0.229138 0.611382 0.351255
0.686035 0.486211 0.275351
0.473074 0.395814 0.719607
0.069495 0.543649 0.384917
0.443026 0.195803 0.655864
0.478241 0.198609 0.711466
0.493907 0.429244 0.679352
0.106748 0.470495 0.611619
0.036373 0.741852 0.57266
0.488473 0.387783 0.740678
0.312204 0.771859 0.356482
0.139709 0.620862 0.343202
0.224023 0.354932 0.267829
0.302617 0.21005 0.641131
0.045779 0.733901 0.599609
0.452332 0.205795 0.673573
0.487498 0.208323 0.729092
0.168933 0.2315 0.608583
0.081019 0.622718 0.73107
